ply
format ascii 1.0
comment Created by CloudCompare v2.10.2 (Zephyrus)
comment Created 16-Oct-20 2:24 AM
obj_info Generated by CloudCompare!
element vertex 1706
property float x
property float y
property float z
end_header
0.245217 0.160622 0.281867 
0.785552 0.0776996 0.438596 
0.252755 0.417013 0.226187 
0.053904 0.922928 0.0208846 
0.246783 0.39257 0.0304025 
0.941927 0.559515 0.643843 
0.853593 0.545329 0.898754 
0.108135 0.897794 0.0114326 
0.609063 0.81567 0.657658 
0.608326 0.713769 0.183725 
0.0479962 0.263096 0.600689 
0.834506 0.210403 0.656324 
0.813949 0.566054 0.756341 
0.593608 0.772529 0.944419 
0.652264 0.18587 0.862595 
0.584006 0.863764 0.285394 
0.957049 0.277914 0.175756 
0.209906 0.211629 0.446931 
0.503228 0.0224411 0.54483 
0.199262 0.615382 0.873609 
0.244257 0.447255 0.410234 
0.531339 0.506127 0.640043 
0.886387 0.567684 0.476323 
0.855136 0.859074 0.830823 
0.937576 0.367409 0.234694 
0.551495 0.513672 0.177315 
0.0241598 0.49272 0.2092 
0.00607299 0.689493 0.375679 
0.149829 0.113857 0.801301 
0.577157 0.238708 0.133295 
0.6211 0.290264 0.154302 
0.118983 0.571646 0.383581 
0.28798 0.495263 0.877322 
0.220368 0.977001 0.244462 
0.799731 0.303771 0.0394108 
0.489362 0.128264 0.245058 
0.972894 0.91064 0.884475 
0.170383 0.565947 0.753158 
0.457757 0.216248 0.013575 
0.5998 0.972859 0.921415 
0.907231 0.803652 0.801151 
0.240962 0.954301 0.623657 
0.0733813 0.889629 0.894937 
0.896775 0.126068 0.570924 
0.784364 0.829357 0.578287 
0.769994 0.614664 0.125695 
0.422424 0.686608 0.398379 
0.0804117 0.49472 0.895763 
0.138954 0.0700489 0.0139433 
0.866287 0.769462 0.629996 
0.232232 0.306372 0.770542 
0.600637 0.954608 0.825596 
0.851402 0.593551 0.751584 
0.375366 0.302634 0.957684 
0.328853 0.435203 0.388054 
0.999003 0.0973103 0.872721 
0.432857 0.923805 0.41699 
0.437161 0.424197 0.505104 
0.282522 0.741118 0.702107 
0.728968 0.240201 0.89435 
0.0677914 0.297189 0.459394 
0.601917 0.657107 0.67318 
0.772796 0.183677 0.0846336 
0.109074 0.989325 0.599077 
0.537843 0.127338 0.821814 
0.20516 0.132178 0.318491 
0.709485 0.0366845 0.814397 
0.54248 0.332312 0.650941 
0.241685 0.777448 0.281745 
0.983448 0.265338 0.606847 
0.193539 0.492711 0.447234 
0.50246 0.52911 0.445054 
0.132134 0.405535 0.965315 
0.448434 0.209733 0.25036 
0.359087 0.217888 0.268866 
0.730716 0.0269341 0.390314 
0.856037 0.990408 0.915902 
0.498883 0.570109 0.0495695 
0.662615 0.54339 0.12378 
0.809451 0.511273 0.0239005 
0.733347 0.363685 0.434474 
0.759697 0.89082 0.44889 
0.789173 0.13424 0.842029 
0.118272 0.277906 0.805978 
0.676123 0.508839 0.62503 
0.322104 0.767569 0.246841 
0.947988 0.155037 0.813096 
0.0667707 0.258622 0.54345 
0.22201 0.303435 0.393512 
0.516548 0.224126 0.152141 
0.730408 0.10627 0.732801 
0.448456 0.384141 0.0310505 
0.912228 0.126446 0.0945775 
0.0813147 0.364229 0.939858 
0.672409 0.387766 0.530779 
0.260627 0.201305 0.762945 
0.895829 0.621946 0.478501 
0.0362414 0.142632 0.798595 
0.7669 0.976817 0.21627 
0.544945 0.667057 0.799307 
0.4902 0.892649 0.131591 
0.874396 0.868491 0.0306955 
0.251611 0.842363 0.947807 
0.176304 0.0454305 0.92324 
0.299289 0.859791 0.44052 
0.0190839 0.535583 0.139441 
0.674127 0.586566 0.20114 
0.969739 0.0302737 0.31288 
0.861661 0.179897 0.181669 
0.489084 0.0483628 0.84365 
0.710246 0.378987 0.763647 
0.936488 0.656747 0.527538 
0.407527 0.651037 0.998514 
0.391793 0.339857 0.0345682 
0.0647148 0.766763 0.460028 
0.799974 0.993468 0.976544 
0.680264 0.487602 0.257908 
0.0274098 0.970823 0.311183 
0.0959661 0.891288 0.467104 
0.427189 0.0929791 0.533808 
0.3673 0.708986 0.724869 
0.429672 0.260112 0.189185 
0.608197 0.294002 0.24328 
0.859486 0.749024 0.0856477 
0.571223 0.295453 0.312459 
0.237884 0.17676 0.518617 
0.136757 0.0670387 0.503022 
0.786049 0.339015 0.254165 
0.290045 0.36694 0.00423007 
0.894628 0.752587 0.958694 
0.2534 0.746714 0.0445166 
0.651841 0.0323237 0.057052 
0.979523 0.720746 0.864905 
0.501929 0.151893 0.484668 
0.823372 0.431466 0.959139 
0.109765 0.347659 0.255624 
0.932856 0.867649 0.634603 
0.81358 0.694321 0.429071 
0.0497988 0.477435 0.666776 
0.821749 0.0886045 0.820769 
0.9705 0.278982 0.226392 
0.160958 0.751607 0.577102 
0.103981 0.0277863 0.194236 
0.594347 0.0701781 0.135364 
0.323194 0.091555 0.977306 
0.673075 0.325692 0.471157 
0.489159 0.253242 0.504223 
0.78794 0.235767 0.85363 
0.622367 0.185517 0.672926 
0.716053 0.289622 0.869885 
0.213414 0.444461 0.953257 
0.0694979 0.587345 0.262905 
0.841676 0.114718 0.603635 
0.891542 0.133767 0.676301 
0.0742967 0.197622 0.743169 
0.741476 0.417322 0.846259 
0.657766 0.727188 0.808541 
0.52332 0.261318 0.792216 
0.393241 0.722105 0.281777 
0.645963 0.593531 0.643263 
0.234195 0.203531 0.2986 
0.680005 0.117667 0.454583 
0.946242 0.69627 0.632362 
0.00594083 0.439097 0.462389 
0.24185 0.27489 0.813436 
0.853383 0.620662 0.750274 
0.21842 0.0600059 0.677905 
0.644465 0.880766 0.283961 
0.48526 0.44881 0.00884082 
0.830888 0.617313 0.106919 
0.909286 0.0162857 0.993138 
0.0482809 0.951642 0.643084 
0.903566 0.809822 0.112024 
0.933323 0.0548837 0.558481 
0.32489 0.693697 0.481146 
0.379178 0.250463 0.0884335 
0.523085 0.716482 0.310075 
0.679237 0.150541 0.520479 
0.0628172 0.393229 0.54527 
0.378757 0.293181 0.0438325 
0.109461 0.449801 0.976636 
0.59955 0.445585 0.00661861 
0.880494 0.0128055 0.27207 
0.801679 0.0423954 0.105139 
0.608766 0.577821 0.418353 
0.00847357 0.876106 0.120414 
0.191208 0.626958 0.681027 
0.852242 0.771251 0.15978 
0.646917 0.230629 0.308092 
0.589339 0.268267 0.258392 
0.759631 0.574322 0.124138 
0.961689 0.39251 0.0944394 
0.62016 0.495633 0.514902 
0.333652 0.363092 0.864122 
0.647673 0.93234 0.371512 
0.946304 0.463362 0.595592 
0.566557 0.24401 0.31313 
0.786032 0.0795788 0.664736 
0.251559 0.32714 0.585919 
0.963277 0.362139 0.996016 
0.566582 0.99321 0.56144 
0.712227 0.0126548 0.308465 
0.227761 0.916695 0.788726 
0.294451 0.116611 0.165649 
0.295461 0.227105 0.689113 
0.829496 0.134499 0.538402 
0.893497 0.386335 0.305514 
0.457173 0.14268 0.0676116 
0.731865 0.923892 0.822041 
0.481918 0.481103 0.294845 
0.645373 0.179726 0.0202433 
0.59763 0.680665 0.48658 
0.939791 0.671079 0.446776 
0.182207 0.415572 0.534651 
0.846996 0.939243 0.80962 
0.505853 0.815765 0.357829 
0.15103 0.751906 0.644191 
0.392899 0.0990397 0.547831 
0.241898 0.518889 0.953594 
0.585529 0.572058 0.296614 
0.312107 0.920178 0.745262 
0.536615 0.933217 0.728726 
0.687626 0.727565 0.59563 
0.583507 0.0252646 0.876926 
0.855254 0.896655 0.956796 
0.625677 0.2876 0.249316 
0.103964 0.40012 0.908216 
0.494304 0.838958 0.563217 
0.519806 0.406517 0.920078 
0.871651 0.60791 0.0877205 
0.872665 0.753495 0.196474 
0.364996 0.584424 0.35106 
0.117679 0.471414 0.867346 
0.918232 0.630388 0.790834 
0.949954 0.586634 0.388055 
0.587005 0.544461 0.845339 
0.642461 0.463968 0.57096 
0.514419 0.842922 0.650679 
0.669107 0.796562 0.814145 
0.498786 0.457212 0.434765 
0.928524 0.785897 0.377315 
0.665845 0.152081 0.854908 
0.0205753 0.534207 0.480445 
0.0609627 0.134059 0.552734 
0.224264 0.291207 0.856855 
0.465776 0.905294 0.895227 
0.444107 0.576815 0.689136 
0.756971 0.191269 0.325388 
0.639223 0.693626 0.784554 
0.0840608 0.0540938 0.629562 
0.728502 0.770677 0.768759 
0.130882 0.510776 0.161886 
0.524956 0.960446 0.981994 
0.244404 0.846561 0.240527 
0.0581639 0.922014 0.841117 
0.480886 0.331389 0.267739 
0.779327 0.334428 0.483806 
0.150758 0.685836 0.124212 
0.459133 0.197912 0.533173 
0.591634 0.928242 0.740028 
0.84656 0.0851801 0.202548 
0.421147 0.843184 0.0973736 
0.773877 0.66754 0.128529 
0.939277 0.544044 0.725446 
0.217988 0.516481 0.661992 
0.13854 0.274142 0.0622143 
0.334791 0.0574334 0.0112607 
0.634487 0.613736 0.467043 
0.538651 0.526065 0.957059 
0.476784 0.400177 0.770551 
0.139215 0.0961464 0.670887 
0.263217 0.472077 0.681525 
0.110027 0.552592 0.458336 
0.519218 0.490786 0.75672 
0.661336 0.00426728 0.158354 
0.771189 0.286852 0.68976 
0.696635 0.44442 0.840383 
0.919117 0.387895 0.888681 
0.229285 0.757479 0.000259758 
0.964984 0.152583 0.237677 
0.853294 0.230059 0.850982 
0.0588121 0.0390544 0.754264 
0.916086 0.226344 0.388512 
0.641698 0.830547 0.93494 
0.618037 0.222058 0.981635 
0.903753 0.502685 0.726358 
0.843744 0.225874 0.911407 
0.0760962 0.565021 0.376983 
0.306697 0.386383 0.872166 
0.333684 0.38516 0.239502 
0.704598 0.586369 0.561734 
0.839822 0.615 0.223356 
0.605139 0.0691104 0.019399 
0.493586 0.749727 0.587061 
0.500053 0.358487 0.66546 
0.630328 0.139019 0.86665 
0.542899 0.603495 0.911901 
0.119563 0.389177 0.80528 
0.752812 0.840283 0.264944 
0.260795 0.0371393 0.419554 
0.295958 0.372612 0.02014 
0.298557 0.923934 0.185157 
0.660351 0.874607 0.481174 
0.226787 0.289539 0.30012 
0.173158 0.0315323 0.420439 
0.148418 0.691826 0.355155 
0.44038 0.0668078 0.973076 
0.765339 0.729281 0.778074 
0.152499 0.899118 0.0240413 
0.477885 0.852791 0.37776 
0.328256 0.457697 0.499112 
0.483429 0.292766 0.729611 
0.684951 0.0271708 0.136553 
0.984198 0.647086 0.869617 
0.557231 0.379781 0.537818 
0.485823 0.933167 0.274116 
0.483583 0.43855 0.931389 
0.527012 0.500709 0.0307438 
0.691445 0.862139 0.612511 
0.319832 0.843612 0.106433 
0.456617 0.640098 0.229284 
0.193398 0.546213 0.38506 
0.969205 0.387986 0.465968 
0.000706084 0.50529 0.894528 
0.440515 0.0501668 0.317601 
0.806878 0.388362 0.3352 
0.750394 0.279729 0.483053 
0.606235 0.211029 0.836915 
0.705578 0.153023 0.449643 
0.890252 0.694684 0.958321 
0.186525 0.0801692 0.788042 
0.545892 0.533557 0.12661 
0.557229 0.132461 0.428984 
0.26463 0.538692 0.130138 
0.445889 0.187285 0.722759 
0.00479184 0.716531 0.334008 
0.493121 0.260631 0.0376248 
0.913274 0.663982 0.455483 
0.628496 0.850493 0.702781 
0.0785549 0.52006 0.619863 
0.367025 0.43727 0.137998 
0.96867 0.710032 0.151216 
0.414639 0.868165 0.0762029 
0.0103069 0.295631 0.745116 
0.185406 0.173969 0.199206 
0.362293 0.965731 0.141828 
0.197655 0.400203 0.927553 
0.308497 0.153067 0.873386 
0.222519 0.0295281 0.329418 
0.287293 0.846208 0.477781 
0.791081 0.619601 0.17075 
0.254374 0.107379 0.670117 
0.379517 0.979205 0.246829 
0.801249 0.0720843 0.390462 
0.122039 0.288599 0.293851 
0.360881 0.804136 0.0649493 
0.355438 0.645982 0.767677 
0.772143 0.276798 0.424185 
0.00877983 0.51634 0.496361 
0.74475 0.813012 0.928167 
0.619033 0.376364 0.541947 
0.75726 0.730048 0.319128 
0.304217 0.196141 0.986091 
0.0505176 0.520623 0.151083 
0.791036 0.8601 0.190599 
0.31773 0.286483 0.7403 
0.613602 0.998226 0.4861 
0.410621 0.253514 0.25316 
0.613769 0.725153 0.26315 
0.708371 0.269347 0.489275 
0.899964 0.397255 0.596366 
0.340407 0.359054 0.997686 
0.0418979 0.697415 0.463976 
0.146132 0.0978364 0.27051 
0.425298 0.976967 0.778293 
0.122479 0.0532804 0.971142 
0.196795 0.271727 0.0131604 
0.733452 0.100322 0.35092 
0.233905 0.107233 0.446075 
0.444816 0.108588 0.441332 
0.118019 0.961214 0.981931 
0.694141 0.238984 0.202398 
0.717914 0.81202 0.530208 
0.463464 0.737172 0.00398282 
0.523274 0.704281 0.45 
0.160299 0.546963 0.380878 
0.927372 0.626904 0.264372 
0.457562 0.723238 0.0851389 
0.0467415 0.326787 0.437326 
0.48637 0.607185 0.841414 
0.0261541 0.50376 0.836968 
0.310709 0.115081 0.460332 
0.214985 0.180531 0.972043 
0.145852 0.639441 0.398204 
0.582887 0.0195775 0.490707 
0.612447 0.340637 0.869216 
0.671834 0.307603 0.276878 
0.470962 0.884637 0.762264 
0.472805 0.576829 0.0150241 
0.819024 0.62677 0.685448 
0.683708 0.297205 0.634653 
0.639891 0.783131 0.280007 
0.497397 0.407786 0.1716 
0.0179379 0.212434 0.910907 
0.86058 0.585399 0.212992 
0.455561 0.69989 0.176504 
0.192077 0.170726 0.668473 
0.776415 0.492372 0.0711994 
0.740948 0.200802 0.278484 
0.369198 0.78069 0.00432814 
0.538737 0.615903 0.163724 
0.252185 0.113426 0.471647 
0.944994 0.305964 0.3915 
0.638173 0.586224 0.324672 
0.640562 0.199426 0.940073 
0.440783 0.815918 0.273358 
0.310217 0.771341 0.267641 
0.440699 0.0967396 0.745551 
0.491474 0.160544 0.0132597 
0.842293 0.492243 0.468572 
0.360821 0.651037 0.922874 
0.324366 0.0434227 0.27726 
0.000158892 0.639718 0.61177 
0.689627 0.866616 0.522904 
0.144582 0.202378 0.958152 
0.133717 0.166557 0.223896 
0.136421 0.473299 0.754856 
0.708562 0.214834 0.735734 
0.193095 0.36394 0.220056 
0.188077 0.428177 0.499182 
0.103513 0.367963 0.299867 
0.459577 0.329014 0.481375 
0.603444 0.196078 0.381195 
0.335372 0.0218478 0.600758 
0.455501 0.0471032 0.745088 
0.132833 0.063563 0.652006 
0.690922 0.752862 0.993396 
0.109081 0.294443 0.742773 
0.703948 0.400682 0.923978 
0.782005 0.138418 0.985853 
0.837553 0.919239 0.184375 
0.794107 0.719425 0.932658 
0.104605 0.346758 0.857337 
0.880494 0.0645792 0.732998 
0.0900342 0.0445984 0.812168 
0.433824 0.0608602 0.693141 
0.744272 0.34254 0.642941 
0.894614 0.967357 0.586858 
0.191415 0.192167 0.207463 
0.330242 0.680979 0.238998 
0.605948 0.0889411 0.517581 
0.633358 0.789415 0.103198 
0.0599381 0.253754 0.241529 
0.592855 0.984126 0.973465 
0.537015 0.135375 0.871611 
0.0182119 0.554894 0.415098 
0.0354546 0.635849 0.931827 
0.413162 0.685376 0.759646 
0.229511 0.0329215 0.265484 
0.908651 0.989799 0.82946 
0.217772 0.329808 0.390189 
0.869329 0.118759 0.574128 
0.522573 0.0516996 0.21087 
0.400809 0.896689 0.803008 
0.490133 0.824193 0.981847 
0.810695 0.0511556 0.334154 
0.426693 0.813511 0.983025 
0.296619 0.536941 0.585056 
0.326245 0.724348 0.00881658 
0.0799316 0.727563 0.0877311 
0.254864 0.247206 0.400076 
0.105614 0.397479 0.0735736 
0.189035 0.868233 0.93413 
0.416553 0.376217 0.451615 
0.111794 0.684624 0.782397 
0.467584 0.218975 0.632743 
0.0225863 0.43052 0.543145 
0.124243 0.915474 0.267019 
0.192763 0.974587 0.57028 
0.978556 0.73493 0.758215 
0.927312 0.822641 0.0688126 
0.878392 0.156774 0.56028 
0.823738 0.673767 0.858698 
0.944304 0.821311 0.257368 
0.474286 0.608366 0.112122 
0.884317 0.822013 0.0177773 
0.946252 0.206017 0.0529157 
0.274626 0.779186 0.447786 
0.730118 0.295939 0.413329 
0.936607 0.651765 0.647007 
0.102661 0.0028769 0.694966 
0.536306 0.510485 0.759635 
0.189948 0.876891 0.555974 
0.939913 0.0798672 0.506557 
0.60458 0.0622458 0.168727 
0.779134 0.0251045 0.362269 
0.640059 0.0431068 0.960576 
0.808825 0.839382 0.710842 
0.692483 0.405837 0.294753 
0.674755 0.74063 0.876563 
0.321977 0.659937 0.959179 
0.313186 0.719219 0.848451 
0.0110979 0.978413 0.0862297 
0.107322 0.600891 0.569422 
0.964714 0.0460588 0.62039 
0.468905 0.531829 0.526981 
0.748945 0.159805 0.626517 
0.0911326 0.94235 0.0448497 
0.956868 0.0342887 0.162276 
0.00744181 0.991578 0.82476 
0.181196 0.763028 0.805199 
0.246855 0.256362 0.557191 
0.987906 0.7343 0.689109 
0.971051 0.584372 0.955721 
0.753742 0.0201763 0.640362 
0.0251794 0.41766 0.134161 
0.454906 0.869136 0.98529 
0.813325 0.871517 0.282345 
0.285523 0.419605 0.443678 
0.648648 0.94651 0.627921 
0.504782 0.590923 0.0457399 
0.191828 0.788802 0.416081 
0.0608363 0.197619 0.429382 
0.499154 0.81389 0.810614 
0.337095 0.431009 0.92032 
0.610658 0.293994 0.0867292 
0.340073 0.549756 0.587642 
0.395665 0.278267 0.991299 
0.114098 0.680415 0.296426 
0.892854 0.0464888 0.870322 
0.418701 0.269198 0.521528 
0.790274 0.0536077 0.964749 
0.225384 0.692206 0.143023 
0.190236 0.33591 0.187922 
0.0538726 0.732296 0.713581 
0.561006 0.760074 0.914455 
0.741769 0.199964 0.823245 
0.281004 0.56464 0.258777 
0.374303 0.665064 0.380746 
0.0832342 0.775309 0.321384 
0.0212297 0.938953 0.266886 
0.34693 0.0277979 0.375317 
0.338235 0.820368 0.443641 
0.120325 0.557954 0.905631 
0.741825 0.0946919 0.35527 
0.272157 0.10976 0.408114 
0.361927 0.248188 0.431824 
0.2884 0.908905 0.768714 
0.650905 0.951193 0.175614 
0.461274 0.646643 0.406791 
0.0538016 0.263107 0.513125 
0.0195078 0.175102 0.879829 
0.528139 0.0603471 0.903691 
0.266432 0.165955 0.591506 
0.0611127 0.628055 0.315811 
0.865085 0.806368 0.794751 
0.346321 0.797096 0.45203 
0.378774 0.0428162 0.882896 
0.152967 0.800047 0.684644 
0.812266 0.0872708 0.351473 
0.065859 0.220743 0.55646 
0.161595 0.522887 0.390898 
0.423408 0.915606 0.481216 
0.822657 0.452163 0.197102 
0.0210449 0.504778 0.284403 
0.428824 0.649397 0.3935 
0.0823961 0.123151 0.292862 
0.601884 0.778503 0.370442 
0.207116 0.495867 0.646775 
0.893704 0.322345 0.152653 
0.333695 0.111925 0.478117 
0.503977 0.515119 0.173075 
0.121789 0.984887 0.729657 
0.599071 0.26666 0.726 
0.279153 0.756264 0.0459753 
0.0220614 0.308888 0.984724 
0.927305 0.0181099 0.729221 
0.161956 0.340266 0.819973 
0.863329 0.686693 0.765211 
0.810876 0.923997 0.648859 
0.372862 0.741399 0.246492 
0.336768 0.563065 0.238387 
0.329653 0.0359621 0.840702 
0.735358 0.742197 0.0898963 
0.814929 0.0617673 0.684171 
0.984813 0.297157 0.241179 
0.0385989 0.81081 0.0798448 
0.536115 0.600495 0.919015 
0.673039 0.887956 0.448066 
0.945434 0.357149 0.523021 
0.0570937 0.629434 0.849967 
0.0284659 0.919675 0.300045 
0.587216 0.0637989 0.661985 
0.0466844 0.441102 0.3275 
0.0240487 0.632135 0.617819 
0.698014 0.268802 0.547948 
0.867492 0.9441 0.666467 
0.109542 0.399875 0.387352 
0.0668521 0.659744 0.928728 
0.254171 0.507969 0.0165321 
0.0755252 0.00763464 0.343533 
0.438163 0.868582 0.819011 
0.239727 0.554837 0.26037 
0.0382282 0.110356 0.632227 
0.711788 0.493849 0.51916 
0.157033 0.731561 0.624945 
0.712144 0.784489 0.0662906 
0.235355 0.0575681 0.51545 
0.385544 0.204625 0.525421 
0.214167 0.839131 0.77687 
0.601758 0.507617 0.202776 
0.464981 0.873232 0.831897 
0.0542746 0.267825 0.331969 
0.130158 0.88447 0.882802 
0.929059 0.803658 0.757334 
0.38974 0.269275 0.950123 
0.197341 0.970779 0.393747 
0.960312 0.676005 0.711682 
0.15868 0.0264286 0.908302 
0.344165 0.850083 0.467308 
0.0772987 0.749211 0.631126 
0.592425 0.181963 0.644239 
0.698368 0.957669 0.0144365 
0.415555 0.29483 0.367059 
0.0895526 0.328195 0.730787 
0.310042 0.444564 0.792889 
0.683075 0.0591923 0.709308 
0.41568 0.738685 0.3474 
0.402717 0.578851 0.993822 
0.291348 0.877063 0.948497 
0.973165 0.621138 0.857082 
0.232499 0.977838 0.735686 
0.915847 0.200782 0.294881 
0.530574 0.56171 0.903244 
0.784922 0.438274 0.959738 
0.346145 0.411339 0.821918 
0.937117 0.38948 0.396834 
0.939107 0.48972 0.851295 
0.949533 0.812325 0.798325 
0.0254055 0.916797 0.156535 
0.125152 0.0613207 0.0982478 
0.587209 0.335769 0.671867 
0.273719 0.426381 0.239828 
0.234206 0.815354 0.0662424 
0.633353 0.712152 0.153355 
0.39916 0.421698 0.670511 
0.838906 0.00316813 0.604301 
0.82972 0.93395 0.938251 
0.969213 0.736745 0.483195 
0.058763 0.377739 0.932792 
0.944138 0.458283 0.14095 
0.306604 0.856639 0.87377 
0.151564 0.924995 0.29444 
0.87593 0.563339 0.231355 
0.475255 0.580388 0.515618 
0.993019 0.659853 0.468159 
0.166322 0.117814 0.808628 
0.0513413 0.454715 0.174715 
0.27856 0.930334 0.909126 
0.26549 0.298259 0.397305 
0.963846 0.700252 0.691021 
0.737452 0.614785 0.841104 
0.717607 0.765582 0.151405 
0.536608 0.030278 0.293637 
0.99501 0.567987 0.631655 
0.594509 0.147569 0.00708611 
0.323471 0.934415 0.260178 
0.556559 0.747678 0.762366 
0.344822 0.985586 0.178685 
0.581632 0.641878 0.0423747 
0.00519478 0.671364 0.595105 
0.900567 0.126412 0.367752 
0.422989 0.805673 0.915144 
0.305349 0.68541 0.632327 
0.430776 0.830092 0.482968 
0.628137 0.881818 0.636643 
0.0560134 0.229644 0.462108 
0.289253 0.970471 0.263184 
0.094011 0.767841 0.343749 
0.134912 0.584394 0.863648 
0.298491 0.453068 0.549372 
0.857313 0.58782 0.611716 
0.0853469 0.480605 0.556 
0.588231 0.550645 0.146953 
0.212673 0.785963 0.641462 
0.574733 0.784077 0.993583 
0.759374 0.154983 0.0149259 
0.85441 0.0028243 0.508451 
0.81488 0.89098 0.838421 
0.156776 0.321667 0.317531 
0.85127 0.525914 0.0480491 
0.356745 0.000381957 0.376275 
0.118324 0.330312 0.670773 
0.70496 0.638124 0.857009 
0.638483 0.312832 0.798656 
0.814518 0.534682 0.860485 
0.54988 0.380447 0.27132 
0.334901 0.547419 0.778561 
0.179146 0.501078 0.952911 
0.894621 0.971634 0.484114 
0.569231 0.575333 0.751352 
0.400592 0.442396 0.383419 
0.317679 0.674099 0.481542 
0.0618288 0.222729 0.703349 
0.214553 0.355401 0.788341 
0.0151695 0.0288794 0.60445 
0.774499 0.524766 0.492465 
0.743202 0.890032 0.597064 
0.134233 0.505723 0.167986 
0.939503 0.960838 0.42654 
0.645104 0.155525 0.957154 
0.942729 0.198897 0.984672 
0.411633 0.110433 0.692141 
0.707153 0.486458 0.282487 
0.347663 0.96821 0.388297 
0.840744 0.0462366 0.131793 
0.58941 0.834191 0.0543987 
0.601826 0.167874 0.659633 
0.482044 0.889082 0.869185 
0.742359 0.858405 0.640536 
0.644979 0.412705 0.741216 
0.354818 0.450853 0.312579 
0.301677 0.663633 0.774145 
0.156254 0.72696 0.962368 
0.0334492 0.828911 0.437215 
0.725112 0.555257 0.627695 
0.0201964 0.951688 0.0251611 
0.859769 0.472132 0.310809 
0.471411 0.9807 0.224093 
0.630203 0.959811 0.6726 
0.0217121 0.868605 0.55248 
0.702546 0.543211 0.520544 
0.495605 0.608211 0.762014 
0.680009 0.945987 0.91242 
0.441874 0.290384 0.874963 
0.802025 0.146696 0.768352 
0.891874 0.839853 0.527912 
0.452627 0.0209638 0.842941 
0.278581 0.28203 0.923274 
0.717833 0.894197 0.0495093 
0.513004 0.79589 0.36242 
0.0403108 0.990603 0.317114 
0.346742 0.456604 0.0339393 
0.072555 0.722215 0.582192 
0.918311 0.412102 0.977008 
0.20115 0.292783 0.466681 
0.611849 0.919043 0.534038 
0.217257 0.724636 0.678787 
0.0354485 0.586881 0.457806 
0.976927 0.673474 0.373543 
0.109339 0.60438 0.067448 
0.860105 0.957567 0.996216 
0.813365 0.493528 0.303226 
0.830312 0.0828721 0.0428091 
0.40706 0.48825 0.814573 
0.162479 0.8037 0.61605 
0.504057 0.441509 0.775225 
0.609694 0.518852 0.349174 
0.821553 0.431119 0.386493 
0.227736 0.25101 0.829515 
0.81836 0.709592 0.818369 
0.220829 0.804017 0.12347 
0.324518 0.0300943 0.418935 
0.530035 0.265759 0.314219 
0.880636 0.709876 0.359859 
0.959808 0.97387 0.0719531 
0.0709779 0.633463 0.737265 
0.111008 0.468698 0.315768 
0.150688 0.574368 0.755954 
0.767844 0.222996 0.175272 
0.879488 0.445087 0.286414 
0.292903 0.467438 0.631331 
0.662572 0.585234 0.385881 
0.449811 0.704995 0.183986 
0.0222085 0.352749 0.899126 
0.639265 0.138499 0.257329 
0.962784 0.142115 0.812037 
0.0869181 0.202098 0.160667 
0.0516229 0.136381 0.54928 
0.212688 0.902319 0.0964472 
0.332495 0.761075 0.207665 
0.25499 0.443326 0.0749216 
0.064732 0.451663 0.766953 
0.0136083 0.580365 0.529493 
0.0663013 0.412951 0.108636 
0.604081 0.556614 0.474433 
0.396645 0.743109 0.751359 
0.61488 0.377864 0.312251 
0.0369111 0.114581 0.505467 
0.16571 0.495813 0.738771 
0.635223 0.620377 0.936921 
0.582912 0.742909 0.654874 
0.102525 0.0482098 0.594809 
0.179463 0.730607 0.458355 
0.814318 0.585329 0.186199 
0.966124 0.126539 0.457255 
0.848487 0.00979086 0.567715 
0.961933 0.880531 0.604857 
0.985752 0.0817821 0.136715 
0.627345 0.219443 0.446792 
0.48592 0.557042 0.220352 
0.716398 0.757645 0.654945 
0.428816 0.2504 0.88073 
0.386801 0.671301 0.241922 
0.306933 0.355187 0.24029 
0.547617 0.0221321 0.146063 
0.989831 0.265777 0.704464 
0.0977338 0.104876 0.505572 
0.89604 0.783233 0.800356 
0.314121 0.189073 0.71645 
0.464483 0.146616 0.378429 
0.856877 0.339442 0.218377 
0.55334 0.0990515 0.942577 
0.869083 0.482751 0.808444 
0.0251235 0.674254 0.855014 
0.55564 0.240735 0.0187394 
0.860076 0.694099 0.232107 
0.611103 0.418378 0.93182 
0.318086 0.521363 0.84044 
0.968106 0.624425 0.634423 
0.499418 0.527429 0.0766951 
0.93519 0.8084 0.121341 
0.0092295 0.517614 0.42612 
0.760668 0.216921 0.206967 
0.13099 0.649591 0.318779 
0.0825359 0.214387 0.682843 
0.46299 0.0596039 0.0417097 
0.771076 0.910126 0.795621 
0.365763 0.0129278 0.942387 
0.660106 0.725305 0.802756 
0.704897 0.830259 0.100309 
0.576831 0.37445 0.718346 
0.372002 0.079307 0.752065 
0.31658 0.641551 0.197277 
0.258518 0.618593 0.843309 
0.780206 0.0920967 0.805772 
0.812377 0.247795 0.102135 
0.740777 0.524855 0.581613 
0.293185 0.209025 0.215378 
0.185115 0.705177 0.939137 
0.821299 0.176517 0.532732 
0.799936 0.792233 0.18898 
0.504662 0.462297 0.639591 
0.205162 0.414675 0.0207411 
0.0798454 0.694699 0.0683594 
0.0857262 0.556095 0.490787 
0.164227 0.95461 0.329168 
0.558131 0.443447 0.364438 
0.361858 0.647993 0.00545217 
0.250809 0.411655 0.747891 
0.123861 0.775293 0.720297 
0.185683 0.0776877 0.154312 
0.695646 0.306988 0.358399 
0.37567 0.0245875 0.568054 
0.543296 0.340368 0.531494 
0.480898 0.529085 0.904839 
0.61865 0.631811 0.110181 
0.563528 0.267899 0.505427 
0.231471 0.178591 0.517942 
0.194768 0.226821 0.452281 
0.887532 0.785349 0.625189 
0.952194 0.608106 0.116762 
0.412858 0.909731 0.00949822 
0.465361 0.477389 0.240365 
0.38097 0.706102 0.70048 
0.260443 0.173122 0.0518399 
0.342612 0.660357 0.1008 
0.635637 0.266542 0.693623 
0.622169 0.756887 0.163798 
0.0571454 0.0751477 0.974928 
0.521889 0.87569 0.560122 
0.28493 0.725868 0.72868 
0.565529 0.0399726 0.622839 
0.630813 0.0786522 0.0890127 
0.796092 0.324523 0.485385 
0.844184 0.520162 0.620841 
0.546025 0.159011 0.147966 
0.757059 0.740534 0.881793 
0.559393 0.558189 0.582019 
0.295411 0.52825 0.701088 
0.98602 0.0865292 0.403478 
0.5882 0.428939 0.190986 
0.372464 0.902403 0.0530419 
0.236424 0.272404 0.658554 
0.903473 0.544738 0.793804 
0.100756 0.451386 0.1999 
0.433075 0.468354 0.243684 
0.356732 0.11617 0.565297 
0.774759 0.488601 0.198283 
0.389844 0.47209 0.319988 
0.483409 0.986405 0.0773816 
0.19803 0.432166 0.379896 
0.536316 0.612601 0.526525 
0.525523 0.150492 0.989524 
0.913451 0.404879 0.529144 
0.208548 0.794323 0.8457 
0.590699 0.437453 0.467403 
0.630981 0.866199 0.700089 
0.938718 0.60533 0.828038 
0.544897 0.762708 0.660423 
0.640862 0.257818 0.799025 
0.806682 0.0666784 0.983999 
0.916144 0.305314 0.204826 
0.197803 0.741889 0.0332246 
0.374139 0.201267 0.848467 
0.864898 0.687833 0.302061 
0.0855906 0.031524 0.461848 
0.668537 0.354176 0.872537 
0.274432 0.231339 0.895467 
0.322383 0.193358 0.0791328 
0.885234 0.609013 0.669504 
0.965919 0.00265526 0.976593 
0.115723 0.787728 0.733918 
0.279719 0.551026 0.06022 
0.00984045 0.31677 0.895669 
0.371147 0.954805 0.0892068 
0.654356 0.00893695 0.753968 
0.398624 0.975139 0.411954 
0.0559906 0.610261 0.952012 
0.692569 0.568241 0.198784 
0.0170471 0.958918 0.358241 
0.635996 0.714285 0.283875 
0.0820207 0.298409 0.581035 
0.973104 0.951675 0.361474 
0.709564 3.96872e-05 0.213254 
0.863627 0.421628 0.765578 
0.421792 0.826054 0.871527 
0.0466619 0.417655 0.891208 
0.817252 0.977427 0.904389 
0.991401 0.767208 0.552594 
0.180825 0.88706 0.6914 
0.846984 0.544109 0.952267 
0.628769 0.814333 0.100817 
0.0755692 0.0253863 0.763659 
0.257787 0.858554 0.335758 
0.896837 0.714528 0.462119 
0.306604 0.560736 0.844323 
0.14366 0.40531 0.874932 
0.482536 0.0660992 0.831369 
0.598003 0.39634 0.462239 
0.92409 0.603099 0.0725766 
0.970841 0.0308719 0.141167 
0.559727 0.0372075 0.817788 
0.0289761 0.829096 0.802231 
0.271191 0.689756 0.179937 
0.257581 0.88331 0.712304 
0.367643 0.224888 0.030733 
0.318226 0.177819 0.119875 
0.623917 0.326393 0.36835 
0.248559 0.851986 0.764557 
0.426563 0.779694 0.640302 
0.291186 0.0135153 0.356886 
0.493821 0.575618 0.175 
0.78399 0.859637 0.658588 
0.716946 0.846884 0.0749094 
0.250671 0.806399 0.0238522 
0.295309 0.573643 0.190153 
0.408144 0.269743 0.438549 
0.380908 0.551252 0.999172 
0.375634 0.198584 0.201371 
0.0727102 0.987715 0.256728 
0.682532 0.133359 0.163663 
0.958798 0.81422 0.828497 
0.447988 0.676884 0.585413 
0.732631 0.190608 0.954683 
0.0226303 0.630517 0.0672178 
0.675139 0.88082 0.175216 
0.355563 0.799146 0.651841 
0.864956 0.139768 0.916663 
0.997978 0.562409 0.903493 
0.176238 0.778463 0.920246 
0.922757 0.00259021 0.539327 
0.969277 0.877989 0.802853 
0.651349 0.758182 0.185982 
0.923054 0.975392 0.978372 
0.654173 0.336644 0.0795552 
0.361606 0.143514 0.0582696 
0.518211 0.180036 0.799075 
0.804054 0.450306 0.172146 
0.173302 0.198827 0.497488 
0.44883 0.993202 0.17819 
0.419374 0.575591 0.70425 
0.221951 0.392119 0.728846 
0.488132 0.733304 0.238433 
0.273333 0.71324 0.719041 
0.0626686 0.102266 0.153184 
0.876066 0.759246 0.312834 
0.406365 0.842276 0.197721 
0.162786 0.641123 0.293067 
0.113984 0.177274 0.366554 
0.89069 0.160427 0.387187 
0.281713 0.566891 0.873903 
0.527693 0.200857 0.0742897 
0.203382 0.59737 0.150681 
0.354622 0.402785 0.664337 
0.913826 0.709693 0.544542 
0.728675 0.685918 0.270161 
0.57085 0.0815851 0.120581 
0.439825 0.278521 0.844488 
0.123186 0.457161 0.212597 
0.713611 0.804725 0.860484 
0.331654 0.638814 0.0694857 
0.358027 0.620193 0.165636 
0.995963 0.355507 0.330022 
0.0103594 0.0636954 0.0497222 
0.677386 0.202821 0.785961 
0.669563 0.749782 0.199954 
0.768702 0.367238 0.910088 
0.24611 0.164013 0.876687 
0.827587 0.800635 0.473464 
0.501819 0.348508 0.533537 
0.198218 0.793162 0.215894 
0.919618 0.539858 0.0579424 
0.814954 0.446152 0.732749 
0.010461 0.0221077 0.222924 
0.436646 0.556361 0.0092002 
0.586221 0.0407025 0.562963 
0.184203 0.263974 0.0928572 
0.405285 0.657618 0.523598 
0.241214 0.695095 0.235763 
0.11196 0.200947 0.69319 
0.61925 0.963232 0.435517 
0.0397461 0.283795 0.0454457 
0.0846509 0.157518 0.721457 
0.450061 0.17369 0.0102353 
0.803383 0.20472 0.370029 
0.145988 0.883824 0.881995 
0.616281 0.446169 0.0549538 
0.750946 0.687087 0.54016 
0.128583 0.437403 0.933419 
0.881219 0.871242 0.676061 
0.0351647 0.608318 0.0858728 
0.504062 0.20231 0.60009 
0.254684 0.804325 0.834781 
0.103424 0.484016 0.220132 
0.977 0.476523 0.1228 
0.46653 0.415808 0.914232 
0.393905 0.299317 0.259425 
0.344766 0.971841 0.0773815 
0.617248 0.66589 0.536776 
0.303996 0.699907 0.232411 
0.989814 0.0920192 0.481816 
0.620341 0.561436 0.791648 
0.582167 0.906229 0.673373 
0.726656 0.620321 0.0247897 
0.992927 0.770674 0.340891 
0.644335 0.438453 0.230576 
0.951605 0.421554 0.921432 
0.631667 0.414272 0.395352 
0.268009 0.77469 0.366704 
0.529095 0.261672 0.254604 
0.6066 0.420538 0.826876 
0.803548 0.449131 0.227428 
0.146036 0.0494234 0.277182 
0.67547 0.422787 0.426193 
0.684751 0.757836 0.560033 
0.813061 0.101837 0.197454 
0.521525 0.999688 0.811812 
0.307374 0.0760904 0.437939 
0.827862 0.211163 0.71781 
0.812855 0.76146 0.368289 
0.00228617 0.615433 0.0904291 
0.252888 0.505321 0.137373 
0.839305 0.691449 0.129854 
0.20408 0.29208 0.978091 
0.967077 0.899048 0.182247 
0.790253 0.247113 0.339346 
0.726824 0.748272 0.549654 
0.288569 0.290549 0.960092 
0.187983 0.90182 0.227827 
0.666799 0.425544 0.857913 
0.444234 0.00121481 0.764762 
0.715744 0.627245 0.954611 
0.00973888 0.736093 0.512007 
0.255735 0.527861 0.676611 
0.380377 0.143491 0.101045 
0.547882 0.0471572 0.0403901 
0.165413 0.993706 0.789595 
0.197283 0.0978574 0.261358 
0.399924 0.925607 0.595086 
0.858651 0.659485 0.0841775 
0.531983 0.917263 0.296947 
0.211096 0.819838 0.567127 
0.537162 0.753976 0.81721 
0.79007 0.540734 0.317833 
0.830026 0.890561 0.158357 
0.112249 0.744563 0.154548 
0.0853849 0.20879 0.959163 
0.53505 0.752788 0.0447105 
0.418725 0.446684 0.0915475 
0.0795853 0.0380447 0.548175 
0.632804 0.572344 0.855748 
0.543479 0.103207 0.961327 
0.148961 0.942366 0.143017 
0.220445 0.723244 0.227182 
0.651159 0.883951 0.759719 
0.367573 0.295359 0.900923 
0.711626 0.847448 0.62396 
0.671635 0.304746 0.761551 
0.888431 0.434284 0.121314 
0.403846 0.937152 0.786732 
0.403775 0.181235 0.324883 
0.225336 0.703625 0.912377 
0.562029 0.077191 0.448488 
0.35976 0.251505 0.64385 
0.329663 0.951077 0.239224 
0.350329 0.769623 0.813747 
0.303481 0.304611 0.207924 
0.163441 0.358886 0.554901 
0.626821 0.207078 0.906377 
0.452528 0.636629 0.47659 
0.00425578 0.775337 0.474985 
0.71718 0.0901639 0.732058 
0.861811 0.332052 0.175492 
0.430746 0.601125 0.929961 
0.0811911 0.732522 0.666436 
0.608101 0.697055 0.517832 
0.00290191 0.0757605 0.013866 
0.641678 0.271045 0.0789197 
0.932675 0.944885 0.8571 
0.688284 0.298616 0.832223 
0.266652 0.953369 0.236961 
0.0323875 0.40753 0.0256568 
0.93256 0.0948732 0.480304 
0.0654186 0.938837 0.224028 
0.816611 0.436291 0.685746 
0.476219 0.506813 0.752605 
0.690816 0.191392 0.0215287 
0.226852 0.23472 0.811056 
0.37951 0.982564 0.826951 
0.940545 0.920726 0.00501865 
0.267385 0.196317 0.795618 
0.946814 0.937059 0.503044 
0.939185 0.568886 0.648908 
0.290725 0.255308 0.968384 
0.278092 0.045454 0.362913 
0.2985 0.388797 0.14374 
0.198568 0.280856 0.671853 
0.365637 0.996602 0.0332778 
0.075741 0.476858 0.568544 
0.906745 0.464117 0.680769 
0.795231 0.315714 0.630228 
0.545081 0.459814 0.584942 
0.57395 0.642854 0.593356 
0.171545 0.46019 0.82444 
0.19299 0.380444 0.549005 
0.200859 0.980706 0.540276 
0.208277 0.910778 0.490028 
0.702951 0.48771 0.716951 
0.993135 0.384451 0.100178 
0.829742 0.376047 0.963007 
0.139506 0.29141 0.698713 
0.436643 0.0755315 0.359813 
0.417917 0.322497 0.975396 
0.991522 0.0294474 0.469699 
0.447194 0.636868 0.0719827 
0.817919 0.514741 0.284818 
0.601367 0.993786 0.331892 
0.0979643 0.371223 0.289296 
0.0661052 0.220817 0.775007 
0.19127 0.475928 0.127702 
0.885579 0.885852 0.240748 
0.210974 0.772835 0.989434 
0.842582 0.895706 0.703264 
0.150875 0.17878 0.414258 
0.614282 0.520758 0.2555 
0.797754 0.375788 0.993432 
0.0229144 0.0204957 0.0627613 
0.656656 0.597693 0.935267 
0.281992 0.535927 0.759286 
0.873138 0.64746 0.259027 
0.290752 0.10813 0.393352 
0.339144 0.618394 0.181127 
0.0107249 0.0205175 0.645371 
0.425275 0.665514 0.955063 
0.450185 0.37007 0.526862 
0.327253 0.0249635 0.839868 
0.687035 0.598777 0.902384 
0.955628 0.752838 0.499359 
0.534428 0.0906316 0.857131 
0.496621 0.911307 0.435626 
0.512051 0.830477 0.419783 
0.468027 0.243613 0.938364 
0.182919 0.424912 0.343269 
0.955948 0.327014 0.584835 
0.431324 0.61784 0.316699 
0.261426 0.914895 0.0501715 
0.624473 0.398372 0.303003 
0.339923 0.647091 0.248057 
0.71602 0.194552 0.0190717 
0.149453 0.616371 0.897314 
0.558886 0.740253 0.274379 
0.93401 0.969663 0.936605 
0.491132 0.0925854 0.60355 
0.674734 0.906368 0.468415 
0.967402 0.870366 0.47752 
0.462734 0.45724 0.62606 
0.272941 0.384739 0.833038 
0.284792 0.497354 0.51906 
0.131172 0.270651 0.649888 
0.462921 0.574242 0.428324 
0.033115 0.167365 0.941186 
0.299085 0.11498 0.551593 
0.354288 0.383518 0.412257 
0.742196 0.500356 0.0187539 
0.100126 0.171921 0.128225 
0.426064 0.751595 0.389471 
0.0917858 0.842359 0.80831 
0.665646 0.299725 0.936947 
0.470379 0.935073 0.119145 
0.372313 0.587198 0.565998 
0.0515002 0.86768 0.292697 
0.710056 0.0413689 0.472622 
0.727685 0.979835 0.549847 
0.257398 0.360831 0.23181 
0.995113 0.848299 0.320931 
0.867666 0.317013 0.99061 
0.19612 0.699318 0.133187 
0.0959313 0.551003 0.783308 
0.407235 0.718667 0.51569 
0.645126 0.977484 0.277042 
0.184581 0.209507 0.373043 
0.95103 0.186414 0.183958 
0.929212 0.0361227 0.833874 
0.0526026 0.1034 0.373566 
0.399568 0.151128 0.452617 
0.510253 0.881047 0.769281 
0.289138 0.852011 0.466661 
0.948795 0.695639 0.31041 
0.0842511 0.313934 0.217527 
0.462107 0.114532 0.489844 
0.198226 0.865906 0.483139 
0.770327 0.500345 0.812006 
0.449897 0.650723 0.587682 
0.423269 0.421789 0.422297 
0.980764 0.510346 0.110867 
0.276636 0.413779 0.487733 
0.136698 0.74409 0.303855 
0.0992054 0.122046 0.615339 
0.754511 0.833037 0.237797 
0.668337 0.105007 0.0930228 
0.904262 0.848913 0.535609 
0.177142 0.30541 0.207567 
0.902531 0.998696 0.5106 
0.798338 0.242001 0.212193 
0.964959 0.557502 0.999615 
0.445887 0.46351 0.315279 
0.741191 0.485461 0.370787 
0.203291 0.446653 0.556139 
0.252949 0.692384 0.362213 
0.329774 0.793613 0.456313 
0.884269 0.794127 0.477123 
0.227407 0.911552 0.399424 
0.63757 0.462508 0.75224 
0.628576 0.90824 0.787195 
0.2027 0.886846 0.931504 
0.901586 0.703318 0.635995 
0.219825 0.00989044 0.515498 
0.350427 0.568326 0.936316 
0.555484 0.26049 0.939272 
0.668439 0.179001 0.730933 
0.542489 0.570652 0.516438 
0.246698 0.17338 0.353137 
0.84495 0.740185 0.765639 
0.440076 0.646035 0.379056 
0.282929 0.584513 0.000180535 
0.932712 0.79566 0.314173 
0.0908695 0.247389 0.670866 
0.583496 0.881818 0.114577 
0.959748 0.332307 0.783565 
0.186761 0.82015 0.770645 
0.909766 0.462864 0.591438 
0.562445 0.568779 0.610242 
0.930611 0.391051 0.964331 
0.464168 0.690656 0.445877 
0.33967 0.233919 0.201277 
0.80072 0.795211 0.366372 
0.329865 0.261399 0.872737 
0.592288 0.401918 0.331952 
0.954714 0.32743 0.675256 
0.28849 0.258259 0.67987 
0.139779 0.32792 0.667778 
0.369 0.56641 0.20809 
0.202027 0.00758512 0.431259 
0.226457 0.180055 0.177594 
0.646673 0.81667 0.502043 
0.524323 0.804527 0.127507 
0.606887 0.0209124 0.211144 
0.873705 0.469696 0.480193 
0.195175 0.891066 0.173516 
0.15859 0.278953 0.485822 
0.623111 0.304501 0.949793 
0.424568 0.563058 0.0484333 
0.905029 0.670229 0.270831 
0.694075 0.24072 0.751793 
0.190062 0.824608 0.859248 
0.0574024 0.909112 0.423687 
0.608021 0.116681 0.0505171 
0.139314 0.714898 0.556066 
0.138731 0.533309 0.314679 
0.317586 0.507882 0.424935 
0.465968 0.325764 0.986182 
0.757781 0.52085 0.691152 
0.332855 0.113937 0.841342 
0.64401 0.992688 0.432506 
0.629232 0.0226767 0.701551 
0.147694 0.67553 0.276405 
0.679497 0.856455 0.743648 
0.518258 0.155485 0.786369 
0.297149 0.708377 0.803355 
0.700052 0.172966 0.698464 
0.673731 0.439042 0.667644 
0.179903 0.450581 0.922042 
0.872795 0.0293811 0.164192 
0.266753 0.537798 0.611804 
0.125028 0.295201 0.652627 
0.498209 0.0794125 0.835983 
0.328895 0.337299 0.919955 
0.498457 0.669928 0.314122 
0.745282 0.375197 0.961818 
0.879472 0.807109 0.921852 
0.981333 0.577379 0.78721 
0.756004 0.0719819 0.0497838 
0.20873 0.978408 0.890849 
0.30021 0.713059 0.17165 
0.529859 0.382058 0.177267 
0.277101 0.658322 0.305995 
0.976422 0.238954 0.677875 
0.869465 0.282555 0.681275 
0.0372861 0.255532 0.608843 
0.47262 0.618764 0.135126 
0.723411 0.108904 0.285025 
0.125338 0.828632 0.434695 
0.328522 0.433545 0.411623 
0.63816 0.59419 0.916029 
0.929918 0.506782 0.687106 
0.607988 0.160638 0.452363 
0.233852 0.563421 0.128051 
0.178627 0.531367 0.666084 
0.460322 0.171753 0.770339 
0.527104 0.175281 0.532687 
0.0187835 0.267406 0.502439 
0.330764 0.439722 0.826397 
0.354447 0.998297 0.859621 
0.982892 0.0174245 0.519586 
0.160381 0.28765 0.91518 
0.15044 0.0933089 0.035255 
0.359255 0.935797 0.214333 
0.344189 0.310663 0.548329 
0.94081 0.563657 0.267898 
0.119197 0.401906 0.19571 
0.194026 0.719709 0.855479 
0.362522 0.375893 0.98959 
0.0658935 0.411753 0.200675 
0.0913004 0.0485746 0.395385 
0.304055 0.0553955 0.441877 
0.936494 0.0481165 0.9667 
0.748511 0.017742 0.204796 
0.262008 0.785256 0.206595 
0.0947793 0.798661 0.474127 
0.172696 0.572338 0.161832 
0.444175 0.518314 0.62911 
0.47459 0.198083 0.396825 
0.0251148 0.69701 0.266389 
0.778413 0.350702 0.613934 
0.710595 0.118723 0.136254 
0.0959813 0.640747 0.842151 
0.195178 0.97259 0.643048 
0.362533 0.124925 0.879625 
0.809301 0.479822 0.630648 
0.999841 0.973517 0.54868 
0.0684273 0.763514 0.345837 
0.286637 0.918687 0.715195 
0.826182 0.585862 0.0153181 
0.346879 0.658331 0.398604 
0.288748 0.510279 0.654588 
0.446307 0.642332 0.859145 
0.303553 0.10625 0.187187 
0.109725 0.802097 0.684139 
0.706518 0.896817 0.141555 
0.420928 0.0174248 0.229238 
0.708614 0.941109 0.216583 
0.99888 0.743391 0.454032 
0.563307 0.892772 0.440534 
0.732897 0.404182 0.562103 
0.593078 0.257994 0.803118 
0.776652 0.65281 0.586101 
0.778909 0.356054 0.00303957 
0.389188 0.345495 0.98098 
0.324723 0.402438 0.890917 
0.103802 0.591245 0.519017 
0.976756 0.982639 0.453716 
0.18383 0.261901 0.10878 
0.258551 0.243267 0.728922 
0.112119 0.794704 0.811105 
0.0921037 0.778729 0.827844 
0.124643 0.202948 0.185175 
0.66469 0.0524797 0.379813 
0.052605 0.205439 0.509494 
0.469838 0.401526 0.847899 
0.968577 0.0740512 0.451586 
0.671178 0.442281 0.193094 
0.329323 0.104683 0.939319 
0.115926 0.897096 0.561543 
0.0495147 0.63871 0.897303 
0.477623 0.560914 0.694073 
0.22117 0.360466 0.273786 
0.75613 0.0737177 0.717004 
0.681484 0.449837 0.929335 
0.186592 0.402431 0.542699 
0.675772 0.181192 0.381729 
0.0256136 0.513817 0.503969 
0.411123 0.662421 0.997543 
0.04675 0.714673 0.226695 
0.260195 0.542769 0.645391 
0.604491 0.0557873 0.634368 
0.82 0.484424 0.684658 
0.583099 0.519822 0.606811 
0.71579 0.723409 0.261441 
0.686835 0.703857 0.909241 
0.707418 0.463335 0.655339 
0.550595 0.200664 0.398603 
0.839915 0.134439 0.738939 
0.48142 0.213279 0.149082 
0.865368 0.635126 0.502682 
0.849709 0.39327 0.916572 
0.0467752 0.0912701 0.939311 
0.87034 0.811107 0.7972 
0.201238 0.69581 0.193025 
0.91834 0.913779 0.208676 
0.597121 0.548747 0.269531 
0.794572 0.663091 0.632424 
0.457651 0.7587 0.104581 
0.920068 0.969435 0.215581 
0.700719 0.897524 0.998077 
0.0928441 0.792825 0.524795 
0.975278 0.292156 0.428256 
0.262104 0.633563 0.149888 
0.30179 0.293317 0.475732 
0.617094 0.616622 0.87332 
0.588639 0.501906 0.962323 
0.00548947 0.937735 0.613771 
0.490879 0.993646 0.815503 
0.535078 0.76157 0.0702095 
0.59972 0.342161 0.591836 
0.709817 0.0881403 0.0156524 
0.48188 0.176678 0.0302821 
0.880246 0.361787 0.823352 
0.911757 0.152655 0.523268 
0.596753 0.868026 0.122911 
0.625869 0.219386 0.537421 
0.311713 0.0901121 0.484685 
0.911705 0.092264 0.9379 
0.759469 0.0971342 0.287152 
0.193813 0.581366 0.0244653 
0.727033 0.0900971 0.392591 
0.569522 0.120724 0.970596 
0.715811 0.508563 0.389324 
0.980961 0.0336132 0.472166 
0.488074 0.952618 0.136718 
0.383895 0.494048 0.191584 
0.449551 0.0114411 0.393304 
0.70376 0.0737799 0.236503 
0.529306 0.469795 0.741832 
0.918018 0.383806 0.823177 
0.0219983 0.746793 0.390177 
0.549391 0.200279 0.462388 
0.847836 0.869272 0.735294 
0.455958 0.432853 0.363466 
0.392842 0.263771 0.910764 
0.289227 0.334473 0.733071 
0.501674 0.397123 0.700698 
0.564167 0.956219 0.340118 
0.455557 0.862315 0.730594 
0.176967 0.912571 0.377718 
0.679278 0.146518 0.173429 
0.954815 0.624624 0.279781 
0.207811 0.0113442 0.70005 
0.118274 0.065339 0.248322 
0.383642 0.637101 0.226588 
0.113097 0.112434 0.640652 
0.96727 0.246322 0.933648 
0.0840676 0.751199 0.743793 
0.618989 0.249734 0.803505 
0.221446 0.680184 0.460763 
0.54818 0.250921 0.618425 
0.210451 0.642529 0.259053 
0.044192 0.476591 0.782024 
0.616554 0.12672 0.237884 
0.0672685 0.243025 0.990951 
0.878973 0.433025 0.828468 
0.0038237 0.295498 0.10754 
0.072826 0.118084 0.0286802 
0.0942607 0.765302 0.554327 
0.83164 0.439377 0.741564 
0.568491 0.736659 0.675843 
0.240131 0.957514 0.252385 
0.293267 0.596367 0.302889 
0.910984 0.805129 0.856421 
0.435197 0.446753 0.304613 
0.535268 0.455158 0.956604 
0.215195 0.0238206 0.522399 
0.360287 0.947607 0.618032 
0.278103 0.78902 0.260261 
0.025769 0.148746 0.795659 
0.0233302 0.0570295 0.607596 
0.128741 0.143828 0.784025 
0.287816 0.0380611 0.0727823 
0.481506 0.348472 0.721557 
0.559219 0.199922 0.606308 
0.197911 0.168744 0.855858 
0.725974 0.265398 0.961574 
0.51191 0.464055 0.879403 
0.704966 0.194899 0.550655 
0.40726 0.262616 0.170539 
0.129492 0.45442 0.59767 
0.304659 0.81815 0.0941223 
0.387493 0.382321 0.252051 
0.33149 0.0627451 0.302379 
0.20908 0.077732 0.716018 
0.170882 0.501926 0.336868 
0.322257 0.0185264 0.247031 
0.955229 0.350549 0.273445 
0.234795 0.612878 0.573472 
0.679838 0.464174 0.244738 
0.154847 0.973304 0.342391 
0.25753 0.185819 0.133997 
0.81561 0.497584 0.86423 
0.426864 0.622848 0.0556696 
0.465077 0.626241 0.621824 
0.18507 0.4272 0.512608 
0.745855 0.259642 0.582619 
0.583212 0.0200011 0.449548 
0.271007 0.504689 0.349767 
0.0739956 0.33122 0.796119 
0.210071 0.292307 0.46197 
0.0733268 0.0548094 0.490393 
0.463043 0.444547 0.0114874 
0.551054 0.165296 0.72217 
0.238948 0.935107 0.34906 
0.101497 0.532589 0.292837 
0.544864 0.424868 0.210195 
0.0530855 0.275019 0.964467 
0.256325 0.218125 0.586248 
0.212564 0.168737 0.918275 
0.295286 0.334069 0.311434 
0.39098 0.0544454 0.741345 
0.808637 0.616959 0.922325 
0.033424 0.932138 0.482506 
0.583437 0.823193 0.23736 
0.352239 0.216639 0.770785 
0.958878 0.659743 0.80669 
0.632224 0.86727 0.122393 
0.627958 0.517308 0.196357 
0.743331 0.525485 0.0735953 
0.937532 0.614039 0.734804 
0.2114 0.747415 0.630066 
0.103048 0.491842 0.881465 
0.296532 0.182027 0.343912 
0.210605 0.382447 0.540436 
0.313028 0.726853 0.675709 
0.600915 0.0715402 0.659461 
0.238854 0.732893 0.683487 
0.247099 0.327136 0.844955 
0.400259 0.641735 0.981819 
0.157123 0.915386 0.407061 
0.965956 0.27161 0.207486 
0.556339 0.643119 0.562126 
0.833084 0.91293 0.239233 
0.399043 0.0665743 0.901179 
0.702825 0.1841 0.388749 
0.747238 0.0459894 0.541268 
0.125834 0.850763 0.88208 
0.95296 0.790837 0.78791 
0.957871 0.430917 0.691607 
0.612266 0.133263 0.22329 
0.0624958 0.0388135 0.975684 
0.816026 0.898959 0.024368 
0.263712 0.635469 0.364382 
0.261783 0.767692 0.239754 
0.109173 0.579549 0.718257 
0.513702 0.492733 0.093588 
0.66837 0.637528 0.714286 
0.770203 0.988345 0.217997 
0.241356 0.996441 0.220356 
0.0680971 0.768008 0.221537 
0.207578 0.664292 0.458397 
0.574797 0.153156 0.259218 
0.624295 0.876916 0.133047 
0.67985 0.770813 0.184488 
0.156586 0.402843 0.616691 
0.802545 0.386829 0.345335 
0.28318 0.200308 0.604986 
0.997605 0.397967 0.179892 
0.911923 0.596335 0.0152265 
0.516687 0.086045 0.0178311 
0.129877 0.0487385 0.424452 
0.887318 0.154627 0.633846 
0.216334 0.128496 0.400721 
0.0456802 0.0469711 0.951763 
0.480568 0.229214 0.316053 
0.212645 0.447144 0.112179 
0.883798 0.312648 0.362158 
0.360495 0.0738361 0.850814 
0.966078 0.121352 0.949661 
0.47365 0.525964 0.0992734 
0.312161 0.755742 0.894029 
0.128482 0.844191 0.884622 
0.739787 0.542834 0.448203 
0.151985 0.33955 0.633238 
0.0385594 0.752685 0.513829 
0.153765 0.717346 0.503911 
0.870983 0.707205 0.375425 
0.208635 0.522652 0.899222 
0.39313 0.686214 0.452028 
0.702999 0.287243 0.991359 
0.341593 0.8478 0.544935 
0.674303 0.873022 0.253396 
0.555201 0.682322 0.695278 
0.93422 0.967569 0.244195 
0.22812 0.606589 0.697425 
0.74381 0.00618598 0.406944 
0.37145 0.488623 0.305695 
0.825398 0.649877 0.261074 
0.917355 0.442427 0.761069 
0.875341 0.00273027 0.304466 
0.788071 0.190741 0.550687 
0.335948 0.910896 0.797846 
0.549777 0.893323 0.42423 
0.697078 0.293482 0.687123 
0.350276 0.828171 0.438319 
0.202566 0.226285 0.50425 
0.587391 0.317526 0.832506 
0.258363 0.167714 0.190292 
0.390862 0.36793 0.138325 
0.116008 0.43869 0.848364 
0.557662 0.832494 0.908349 
0.144114 0.394012 0.622186 
0.0316676 0.354415 0.541047 
0.905862 0.922676 0.875609 
0.301659 0.224413 0.809325 
0.408267 0.941854 0.595725 
0.138669 0.263859 0.544473 
0.305633 0.118301 0.656861 
0.480832 0.781236 0.24346 
0.637504 0.313692 0.119427 
0.67691 0.141384 0.230483 
0.77526 0.632052 0.261157 
0.824015 0.0167054 0.194679 
0.964619 1.16243e-06 0.984777 
0.117193 0.815656 0.632013 
0.814241 0.114914 0.472156 
0.853213 0.111519 0.201169 
0.256456 0.962329 0.110055 
0.12637 0.80668 0.505741 
0.171297 0.209387 0.842276 
0.54833 0.558195 0.552715 
0.516087 0.88257 0.765617 
0.16057 0.785395 0.93441 
0.118335 0.395957 0.138327 
0.531516 0.338546 0.679559 
0.391967 0.0905659 0.380667 
0.406088 0.619734 0.876918 
0.14922 0.557882 0.682989 
0.989947 0.0848478 0.142163 
0.557253 0.649308 0.411293 
0.422746 0.82763 0.574102 
0.708437 0.408628 0.331436 
0.153107 0.299646 0.262449 
0.932902 0.62844 0.743884 
0.0062116 0.178366 0.00206813 
0.519778 0.25595 0.611194 
0.0697224 0.501373 0.256547 
0.94044 0.507792 0.660419 
0.131639 0.461944 0.0468004 
0.63667 0.712785 0.309999 
0.894275 0.994522 0.880655 
0.0334145 0.229686 0.650629 
0.29052 0.526291 0.18381 
0.0601558 0.309543 0.602241 
0.468068 0.409805 0.528996 
0.994479 0.21699 0.667259 
0.361697 0.441989 0.949105 
0.219781 0.00790047 0.974436 
0.0398834 0.0426565 0.419116 
0.430103 0.0550346 0.0405133 
0.907531 0.251415 0.150438 
0.0830076 0.265424 0.202774 
0.909148 0.310855 0.60613 
0.21571 0.938539 0.0147654 
0.129248 0.242063 0.580501 
0.916464 0.360999 0.936996 
0.773515 0.297795 0.383838 
0.597618 0.589729 0.724388 
0.416796 0.557132 0.122088 
0.562709 0.596906 0.0116554 
0.0452748 0.316279 0.63164 
0.559429 0.604897 0.568145 
0.578571 0.830535 0.909491 
0.108445 0.696083 0.719538 
0.0599686 0.954994 0.113978 
0.245717 0.855314 0.505476 
0.880567 0.66118 0.941523 
0.918965 0.593806 0.714733 
0.701174 0.629057 0.471908 
0.917988 0.65986 0.873303 
